range	ranges_ratio	azimuth	contribution
18.6201201404	0.388441389203	38.3956419568	0.155857587181
52.3370561445	0.714906796472	71.185338908	0.157522190663
2.20843132574	0.179568163091	32.7924436171	0.171146329936
15.5543639074	0.0949030121769	131.815240944	0.0776980513517
4.2976559065	0.321154393139	130.046388134	0.113038863751
1.67229630094	0.121519028291	35.462202826	0.115061997215
53.7539844243	0.671034577471	71.93243202	0.293123351285
16.7053521947	0.267129673147	39.269081698	0.100951281539
6.35284016824	0.996707296976	19.4436475723	0.11349983087
49.1776890341	0.740547196875	79.3209631642	0.27642609789
25.4664793063	0.597253639332	40.24140141	0.0228685735632
3.48707080949	0.0526161687063	33.5505233924	0.220008844472
1.10637599698	0.647985656301	47.4651326029	0.147637006905
10.1951411793	0.121671468245	135.303506577	0.196269037882
49.779777177	0.803626850185	90.1812799463	0.208791977928
40.0867963318	0.225818445387	48.8274788659	0.116572944991
44.9907297928	0.792498733482	78.7496566668	0.263775111422
15.3841623122	0.241275856807	40.3457747124	0.0558021132344
20.9199691952	0.0448722190008	131.721854305	0.116342461432
2.79349930915	0.294812768944	147.625049593	0.180519328008
14.6395303333	0.031030671102	130.562761315	0.0800541055116
48.6798493682	0.75899243141	75.9041108432	0.209509037889
2.45947867862	0.480088290048	121.504257332	0.221827103661
22.5709246684	0.303745750298	38.5000152593	0.0750859043482
69.4827393384	0.478655354472	58.7484359264	0.171684124908
10.6844707654	0.0888359019745	131.710867641	0.188688689715
4.27850822705	0.810974456008	36.95638905	0.14000544017
46.6948732645	0.719723899045	113.780632954	0.0800284962273
8.52078298677	0.633534348582	23.3329264199	0.0702457496065
2.60415003452	0.378929136021	39.6700949126	0.100413486568
48.0820162651	0.807224433119	56.5291299173	0.293148960569
24.1580545434	0.0369453413495	133.007293924	0.156881958555
25.866453055	0.231733115635	42.0047608875	0.10702068193
45.1481662683	0.827742851039	68.592486343	0.213017509845
1.96802157255	0.398593890194	42.5156407361	0.112987645183
6.70175343834	0.163531479843	129.546494949	0.170045130709
27.1557301384	0.16249488815	42.5595873898	0.113371784448
1.39359118884	0.406947599719	43.8834803308	0.0765968521247
14.1991337058	0.0761833857234	136.726279489	0.173860914077
49.2010917534	0.699937192907	74.1901913511	0.273941997308
9.49518711914	0.786736503189	40.3952146977	0.148072364739
5.5039597123	0.0269147923215	111.704153569	0.266233602719
49.6712736601	0.728473952452	90.0714133122	0.179546175202
64.7915578714	0.0317318948943	134.474013489	0.0116260977346
5.35503331653	0.502710379345	138.621478927	0.0869430030012
32.6511141426	0.145939909055	46.5202795495	0.0882490765029
42.8142768945	0.888505417035	76.8819238868	0.258473989562
14.0374421904	0.00575612659078	148.218329417	0.174629192608
6.00392689813	0.0075549180578	44.6690267647	0.0790041248534
8.22080267528	0.180116946928	131.848200934	0.211557780637
59.6004092186	0.550515549181	75.162511063	0.16510253883
23.9197723102	0.474539475692	38.9889217811	0.157931939213
2.88923770644	0.0461832026124	43.6802270577	0.106508496243
12.6311515102	0.0769760734886	133.693960387	0.177727916014
53.730581705	0.666004058962	77.7388836329	0.225386794185
12.6311515102	0.332465437788	42.554094058	0.108659676128
3.6593999246	0.320300729392	136.034119694	0.235323196512
25.5558351438	0.297404248177	129.068575091	0.0404109333414
17.3350980969	0.268867488632	47.4596392712	0.137751823147
53.5922929089	0.691735923338	92.4774925993	0.180032751605
61.0364851778	0.530789819025	79.5681630909	0.180109579458
32.4489997484	0.183287697989	130.359508042	0.0697591732039
4.29978342644	0.262861354411	137.984252449	0.202159173282
26.2451516042	0.15682412183	42.4222540971	0.116675382129
14.4863488976	0.338959379864	44.3559068575	0.0798748405212
13.2545148526	0.141763054292	141.379131443	0.0762383221438
46.2097987182	0.873871181372	75.0196844386	0.203567683921
1.49996718582	0.282190740684	72.5971251564	0.2813174712
9.11436104994	0.868322367016	13.9942625202	0.114754685803
1.41912142812	0.258532059694	42.647480697	0.159468496274
52.1711095892	0.65679668569	69.3121127964	0.178521803829
6.32730992896	0.16188512833	137.292092654	0.149839405359
69.7891022097	0.444112460707	80.0735496078	0.0494510107161
5.97414161897	0.227708700827	136.577959532	0.184668032072
50.1967710852	0.70002865688	83.8474684896	0.163412326063
16.8947014694	0.306825037385	47.0696127201	0.197011707128
7.12725742628	0.747681386761	38.5000152593	0.168918322198
42.7313036168	0.8261879635	100.151676992	0.0793370455499
69.5486924565	0.46027109592	56.7268898587	0.15019793534
21.4986546188	0.00212805566576	139.851985229	0.249843660737
1.05531551843	0.575515701773	66.7741935484	0.147918709033
55.4368526966	0.546552110355	77.3598437452	0.237653641387
8.98458233362	0.136214239937	136.544999542	0.190122809638
35.4275276639	0.172860805078	41.0104678488	0.107046291214
50.4712211574	0.817194006165	87.8740806299	0.131964124884
2.51692171699	0.45649058504	134.699240089	0.209918786439
45.2226294662	0.849938108463	98.827784051	0.101232983667
16.9627821074	0.262282082583	47.426679281	0.130478786392
61.5811302824	0.505606738487	64.0824610126	0.210072442145
9.14840136898	0.54764967803	48.1463057344	0.191582538846
10.9525382778	0.102006714072	136.418652913	0.16274648467
1.64251102178	0.487862727744	48.6516922514	0.0817187089942
2.35310268164	0.406093935972	134.886013367	0.231302538869
35.9828103682	0.129964201788	40.2578814051	0.0913990184777
46.533181749	0.782407208472	86.341441084	0.226897741961
6.40390064679	0.834023377178	5.29831843013	0.0375426934945
50.8052417879	0.820913541063	75.4866176336	0.227691629776
8.7101322614	0.181397442549	134.457533494	0.125331320238
1.64038350184	0.203989043855	62.7530747398	0.200955536917
45.935348646	0.0857871028779	46.4049195837	0.0678128675934
8.01230572119	0.566247352519	58.8143559069	0.122744782519
45.9757715248	0.812346415601	76.0469374676	0.246821765184
2.55947211579	0.236062410352	34.0723899045	0.0452766973675
8.75055514026	0.119171452986	133.765373699	0.165973254498
25.123948596	0.207159794916	45.2568132572	0.0802333705021
53.9709914582	0.647558824427	81.0019226661	0.162234298983
47.2841962877	0.817620838038	75.2833643605	0.0863283801768
2.53819691639	0.383685262612	129.233375042	0.301318322276
12.003533128	0.387953581347	44.6031067843	0.12645812875
1.64251102178	0.427770897549	48.8659321879	0.1496089218
8.27399067377	0.23978194525	129.436628315	0.0286818811101
47.8713917911	0.733382518998	79.1946165349	0.306568225567
22.5432669092	0.164811975463	48.3385723441	0.087301532982
6.13157809451	0.185757225257	137.412945952	0.219035691667
50.9690608233	0.706675038911	74.9922177801	0.29527453117
5.11675108328	0.0673113803522	21.5750602741	0.0201027708537
12.1077816051	0.49972255623	40.8182012391	0.16197820614
56.5708208245	0.11234214301	116.769005402	0.014673602572
1.11914111662	0.688534684286	29.0130314035	0.209970005008
48.5309229724	0.76658394116	81.7380291147	0.237474376397
63.957570055	0.572741294595	70.476699118	0.0970074517498
6.0294571374	0.664876003296	36.1268959624	0.155447838631
45.0162600321	0.820151341288	101.514023255	0.154705169385
5.48693955279	0.194842646565	130.678121281	0.196166600744
48.0713786654	0.766614429151	71.2842188787	0.16551228738
36.4551197948	0.197586565752	52.7771843623	0.0816930997099
7.29958654139	0.232464827418	133.468733787	0.208920024349
9.26541496566	0.0161830195013	49.0252388073	0.144922422764
58.7132334037	0.640058778649	71.3501388592	0.221801494376
7.22725086344	0.14389721366	142.642597736	0.181492480813
16.8478960307	0.1552387463	46.6081728568	0.112244975937
12.7119972679	0.8602735374	135.34745323	0.0853296180873
13.1268636562	0.108134800256	132.886440626	0.240393834813
52.0221831934	0.160086336863	44.103213599	0.0928331384012
3.70620536327	0.0224025696585	45.1853999451	0.0835881867516
56.832505777	0.648503952147	93.3399456771	0.146177277697
56.3070083519	0.611034211249	79.1122165593	0.184386329944
20.4412772088	0.227281868954	46.5092928861	0.0895551500046
1.1233961565	0.137555711539	50.9753715629	0.242621842551
22.9687708971	0.0542930082095	134.292733543	0.14725286764
1.19573183445	0.476490707114	31.468550676	0.135139676144
6.69537087852	0.235757530442	134.523453475	0.14154199723
15.7139279028	0.553381420331	33.3582567827	0.167100063009
53.9007833002	0.67542484817	76.0744041261	0.161517239022
4.09979655211	0.817102542192	135.979186377	0.212761417001
31.2192932232	0.636369731742	161.715445418	0.0152882253963
40.1548769699	0.00654881435591	133.067720573	0.112526678065
58.9961935557	0.594113376263	65.4997405927	0.24738516944
51.9987804741	0.717711691641	92.1423993652	0.133731165504
68.0828312181	0.486277352214	64.8185674612	0.11603515002
6.01243697789	0.175391308329	131.815240944	0.277066329999
14.790584249	0.2132878811	49.3768120365	0.109735266071
10.5525645292	0.62240623188	157.990966521	0.0942160397559
38.9017677254	0.0985310831019	46.9322794275	0.05518749041
1.97865917225	0.449661275063	142.862331004	0.208535885084
50.6861006713	0.756126560259	84.3583483383	0.257603273894
60.8216056639	0.577375469222	66.8291268654	0.271483506011
21.7199166925	0.136122775964	41.0104678488	0.108173099725
8.07825883932	0.136854487747	129.4860683	0.210046832861
18.6392678199	0.378502304147	142.208624531	0.026018515538
1.90845101424	0.417923276467	57.6442762535	0.144282190656
51.966867675	0.736034974212	91.3293862728	0.230124511789
14.9395106448	0.119323892941	137.072359386	0.13234826415
34.5531169687	0.164872951445	46.679586169	0.0755980900351
4.88910644974	0.227373332926	140.110171819	0.286490546638
17.5840179298	0.221275734733	50.618305002	0.0995171616159
55.7453430879	0.619387920774	68.6584063234	0.0949330997177
45.3460256227	0.796126804407	108.193914609	0.0905026935255
15.9819954152	0.459539384136	42.5595873898	0.139057896649
55.0943219863	0.644571001312	90.9723197119	0.199751900553
3.92321239712	0.176641315958	32.5562303537	0.0612312815161
19.0286039689	0.0588966948454	131.936094241	0.161696504012
18.1861060727	0.377282784509	36.8520157476	0.0994915523316
11.9546001694	0.175299844356	124.635456404	0.0764944149873
1.45316174715	0.164446119572	42.740867336	0.218139366714
51.5051958481	0.704967711417	75.0251777703	0.22223685221
3.15092265902	0.429661152989	135.429853206	0.237448767113
61.1875390936	0.599143894772	82.776268807	0.200059211965
25.019700119	0.194934110538	42.0981475265	0.112936426614
23.2602411289	0.200513412885	128.052308725	0.0272989797554
41.8824231609	0.957530228584	69.9053926206	0.280933331935
15.5245786282	0.0352380138554	130.908841212	0.188304550449
66.6425002189	0.0912444532609	41.4774010437	0.0328561944588
8.51440042695	0.421673299356	47.0311593982	0.123717935324
47.6011967588	0.752041169469	83.4134952849	0.225694105597
24.4452697353	0.0981652272103	132.320627461	0.108838941118
22.7347437038	0.215574480422	37.8572954497	0.12528010167
2.83179466806	0.360422925504	131.463667714	0.158956310587
53.7199441053	0.690150547807	89.5770134587	0.227614801923
19.2902889214	0.342221594897	38.1594286935	0.145741919864
12.2205401619	0.0983176671651	136.083559679	0.173656039803
3.48281576961	0.239294137394	40.5215613269	0.0717054788143
48.0586135458	0.707711630604	60.6985686819	0.255682577568
3.49983592912	0.641125858333	168.61507004	0.087301532982
6.50176656401	0.183745017853	130.886867885	0.129095885038
29.9768215784	0.294020081179	42.554094058	0.135651861831
45.79280481	0.873413861507	89.384746849	0.251149734239
17.258507379	0.0685004119999	136.742759484	0.133347026239
27.5791066064	0.211824457533	39.1372417371	0.0984671809576
1.1021209571	0.580759636219	18.8613544115	0.191121571728
52.4710899007	0.702772576067	80.8810693686	0.0959574710916
44.6864944414	0.767681508835	75.1405377361	0.120337509791
4.61040133764	0.22371477401	138.34131901	0.25386431838
19.9540751426	0.251580797754	49.5525986511	0.135088457575
3.10411722034	0.142677694021	59.391155736	0.172990198409
8.40589691003	0.168013214515	135.935239723	0.135959173243
55.424087577	0.671491897336	97.690664388	0.166997625872
34.6211976068	0.278715109714	43.6967070528	0.12763615583
47.9501100289	0.745669179357	75.3822443312	0.249792442168
1.44252414745	0.481612689596	59.8910489212	0.119594840545
5.98477921867	0.931828852199	45.0315866573	0.0817699275629
8.90799161579	0.111031159398	138.703878903	0.127277625849
49.4372464667	0.729906888028	79.5626697592	0.270305478931
5.80819506368	0.0175549790948	110.144047365	0.193887374437
18.7116034978	0.228989196448	44.2405468917	0.101617122932
11.8354590528	0.186427961058	133.67198706	0.0535228869274
8.84842105748	0.130909329508	134.149906919	0.191121571728
16.9670371473	0.311337260048	41.0818811609	0.133577509798
1.04042287885	0.900822565386	41.1587878048	0.0690933318108
61.2747674111	0.548747245705	66.4995269631	0.194297122987
8.81225321851	0.133256904813	137.434919279	0.157906329929
47.026766375	0.125147099216	126.624042482	0.0156467553772
10.133443101	0.3435630665	50.1293984802	0.14389805139
60.7067195872	0.542405743583	75.5745109409	0.283289386095
47.5629013998	0.716949491867	58.3034760582	0.307848689784
7.81870140668	0.117951933348	135.611133152	0.237423157828
11.3822973056	0.40475246437	47.706839198	0.0496814942753
13.8438378759	0.0491405377361	45.5644398328	0.0440730610031
27.0770119007	0.145086245308	129.810174871	0.0900161171229
34.8488422403	0.104384777367	47.6354258858	0.0874551886881
4.87846885004	0.225970885342	136.352732933	0.194117857996
64.4320070016	0.548046021912	73.8880581072	0.265772635601
2.43607595928	0.277038270211	52.782677694	0.161056271903
8.82076329827	0.893017639698	26.9859920042	0.0360317457179
46.4353158318	0.815364726707	73.7946714682	0.338349347443
10.063234943	0.180757194739	134.133426923	0.107993834735
10.5908598881	0.0897200537126	135.358439894	0.179623003056
64.7234772333	0.35398995941	52.9255043184	0.136983544617
54.7475362361	0.73094347972	105.150608844	0.14195174578
5.16993908177	0.58771089816	56.9576097903	0.131067799932
9.31860296415	0.304690878018	146.092410047	0.06578973413
14.0416972302	0.409600054933	45.3117465743	0.107174337636
48.9713195999	0.732345927305	78.2992034669	0.236321958601
1.99993437165	0.249751518296	32.5067903684	0.201877471154
60.1344167234	0.602893917661	79.771416364	0.213734569807
15.9032771775	0.39466093936	31.7816705832	0.101924434345
2.21055884568	0.187068208869	107.397381512	0.268794531154
9.48880455933	0.197891445662	138.500625629	0.0881978579342
25.1005458767	0.280026093326	36.7970824305	0.109325517521
8.74842762032	0.186671864986	129.67833491	0.136036001096
41.9717789984	0.857285714286	69.3121127964	0.232787877361
2.13822316773	0.241245368816	25.7609790338	0.180391281586
52.6519290956	0.705912839137	83.8145084994	0.230252558211
9.19733432759	0.778169377728	11.8958098086	0.148558941142
5.1124960434	0.211946409497	135.083773309	0.186819211957
5.58693298995	0.0974030274361	51.2115848262	0.070578670303
61.736439238	0.520728782006	68.2793664357	0.179699830909
13.2162194936	0.450149082919	34.5722830897	0.139723738042
3.07645946113	0.0768846095157	47.706839198	0.0502448985309
15.8905120578	0.0497198095645	137.061372723	0.217883273871
48.9351517609	0.777254737999	79.7494430372	0.22164783867
11.6078144192	0.443411236915	44.1251869259	0.0933197148038
21.175271588	0.0431953794977	135.550706503	0.152221068803
7.25278110272	0.0130732444227	150.080568865	0.177548651023
62.8789174456	0.126183690909	46.3115329447	0.102948805718
11.6758950573	0.102555497909	132.650227363	0.181518090097
49.2670448715	0.809602496414	81.1777092807	0.182363196481
8.5973737046	0.458258888516	36.8904690695	0.157240488536
44.8524409967	0.80286465041	79.5461897641	0.266131165582
4.23595782825	0.359294869839	131.776787622	0.103717084249
20.8476335173	0.276519974364	33.951536607	0.0951635832768
2.7105260315	0.0360002136296	43.6033204138	0.155268573641
1.68931646046	0.246916135136	55.7985168004	0.113704705145
57.6835137529	0.664418683432	83.2871486557	0.23637317717
10.5525645292	0.149781395917	136.264839625	0.04988636855
12.7609302266	0.589174321726	36.0115359966	0.170787799956
4.37850166421	0.266032105472	138.198492386	0.217550353174
46.1608657596	0.770120548112	115.324259163	0.0941904304716
63.8426839783	0.439508774071	58.2265694143	0.25227654275
8.98670985356	0.5801498764	35.1600695822	0.0464291151631
22.3177497956	0.227434308908	44.9711600085	0.142284666477
22.5475219491	0.106701864681	137.918332469	0.0799004498056
2.03184717075	0.560363170263	131.150547807	0.171965827036
53.5859103491	0.692589587085	76.9478438673	0.14507607847
12.1418219241	0.124110507523	136.709799493	0.147688225474
3.56366152732	0.217464735862	125.497909482	0.18612776128
55.3900472579	0.70441892758	93.28501236	0.15432103012
42.4057930661	0.144354533525	47.426679281	0.103179289278
31.1724877845	0.090238349559	43.9219336528	0.0637666006665
49.9180659731	0.703870143742	76.6347239601	0.208535885084
4.22957526844	0.345239906003	135.177159948	0.238242654927
19.5583564338	0.425667226173	137.314065981	0.0512180513361
47.3671695654	0.786888943144	74.3165379803	0.239267026301
17.5159372917	0.062006469924	138.736838893	0.0956501596794
3.18709049799	0.0288355357524	42.2025208289	0.175935266109
12.8715612634	0.517588518937	57.9848628193	0.0867637380107
17.4244539343	0.060177190466	133.353373821	0.196576349294
7.71019788975	0.496338389233	47.9100924711	0.140056658738
47.7182103554	0.822895260475	77.2499771111	0.0815138347195
52.7583050925	0.744571611682	59.6768089846	0.149071126829
7.75062076861	0.140970366527	135.869319742	0.145639482726
15.179920398	0.00752443006684	148.394116031	0.044431590984
51.5307260874	0.688992004151	69.5263527329	0.244465711024
1.00212751994	0.527009308145	39.6700949126	0.200929927633
33.7467869116	0.20478173162	42.5760673849	0.178137664563
2.72329115114	0.110421399579	54.1615039521	0.181133950832
55.6602422903	0.638930722983	88.1652272103	0.171632906339
17.9265486401	0.17670229194	135.748466445	0.0504241635214
55.1241072655	0.669235786004	80.6393627735	0.243979134621
27.4301802107	0.325178807947	133.518173772	0.0223819971606
3.73173560255	0.277983397931	136.610919523	0.256271591108
16.2862307666	0.507192114017	44.1746269112	0.104306097789
53.55187003	0.661552812281	85.2537614063	0.207281030151
12.2439428812	0.119689748833	130.183721427	0.139365208061
8.98032729374	0.0124329966124	158.639179662	0.2607019973
9.86324806871	0.424874538408	46.3225196081	0.0736773937091
28.7875379322	0.278471205786	42.0102542192	0.143795614253
10.1376981409	0.128866634114	137.308572649	0.176626716787
60.183349682	0.707650654622	75.1020844142	0.14389805139
1.44039662751	0.393075563829	22.8110599078	0.148866252554
13.4353540474	0.185970641194	130.606707968	0.0811296954542
63.2937838338	0.506246986297	60.6656086917	0.260138593045
28.1450269104	0.38993530076	149.657582324	0.0253782834293
1.14892639578	0.401063417463	62.6651814325	0.273301765199
22.5390118693	0.11109213538	41.9827875607	0.0905026935255
3.56791656719	0.317617786187	139.346598712	0.235758554346
14.7459063303	0.633351420637	133.468733787	0.0475303143901
55.1921879035	0.67414435255	77.7663502915	0.23755120425
51.4690280091	0.0186830347606	135.808893094	0.0791833898438
57.7409567913	0.595028015992	67.1971800897	0.270407916068
10.3653427745	0.705546983245	38.1374553667	0.100515923705
2.42543835959	0.489813959166	147.092196417	0.168943931483
12.3886142371	0.32496539201	40.3183080538	0.188586252577
21.4007887016	0.0870980864895	136.424146245	0.0484010300579
7.43574781753	0.129141026032	131.969054231	0.161235536894
52.9604194868	0.705912839137	76.0798974578	0.205283505972
3.15092265902	0.0577686391797	49.4592120121	0.148456504004
57.8069099094	0.556521683401	109.759514145	0.17629379609
51.5754040061	0.198196325571	43.9219336528	0.148686987563
5.17419412165	0.451642994476	141.14291818	0.15119669743
10.4461885322	0.892499343852	20.0149540696	0.0989025387916
52.2817406261	0.689205420087	71.7786187323	0.236654879298
9.58241543667	0.0123415326395	150.042115543	0.211685827059
3.72109800285	0.407221991638	127.156895657	0.103460991405
49.6989314193	0.785212103641	96.4162114322	0.203183544655
35.5594339002	0.138775231178	40.8127079073	0.115343699343
1.49571214595	0.321520249031	69.301126133	0.141977355064
7.5144660553	0.208226874599	132.430494095	0.167765904403
14.0395697103	0.407343943602	33.6878566851	0.115676620039
5.98052417879	0.172433973205	134.435560167	0.26541410562
55.1028320661	0.655577166051	68.3727530747	0.21516868973
33.1829941275	0.126153202918	131.073641163	0.0292196760815
10.8206320416	0.107860408338	42.927640614	0.072934724463
58.9642807566	0.605180516984	62.7036347545	0.210021223576
5.33163059719	0.236489242225	135.001373333	0.215322345436
11.3269817872	0.969024201178	140.675984985	0.078978515569
7.6378622118	0.132494705039	136.599932859	0.257091088207
24.032530867	0.208806146428	43.5154271065	0.120824086193
18.7690465362	0.343928922391	130.249641408	0.0342390958136
58.3685751735	0.616125705741	73.1134983367	0.208254182956
48.7968629649	0.775486434523	92.3841059603	0.214426020484
2.25098172453	0.25841010773	26.3762321848	0.179494956634
13.9863817118	0.104567705313	135.83086642	0.168329308658
35.1403124721	0.118134861293	45.5864131596	0.0527289991126
7.19533806435	0.14703747673	141.022064882	0.222313680063
64.6341213958	0.514661671804	112.945646535	0.0415889604214
60.9556394201	0.481155369732	69.9053926206	0.251380217798
7.36341213958	0.307038453322	44.8393200476	0.0992610687724
53.1370036418	0.759785119175	76.0524307993	0.255605749715
11.5482438609	0.0881041901914	47.4596392712	0.0711164652743
26.7855416689	0.252647877438	36.7036957915	0.100695188696
8.12931931787	0.148592364269	135.984679708	0.187536271919
11.4631430633	0.078439497055	130.557267983	0.198394608482
18.5052340637	0.244324655904	53.6835840938	0.148200411161
44.6737293218	0.903993316446	78.9748832667	0.170890237093
1.59357806317	0.715912900174	24.6128727073	0.105970701272
52.320035985	0.725028809473	78.4969634083	0.236910972141
9.6377309551	0.902164036988	60.9622486038	0.0685555368395
11.6631299377	0.105543321024	139.121372112	0.15037720033
2.78073418951	0.127403210547	48.3989989929	0.156292945015
4.77422037299	0.357831446272	120.471510971	0.112347413074
1.6808063807	0.376764488662	44.0043336283	0.0978525581333
45.7034489726	0.775608386486	68.4276863918	0.329847065039
10.2610942974	0.807315897092	24.1184728538	0.021818592905
19.9434375429	0.396795098727	54.370250557	0.0564167360587
8.87820633664	0.0373416852321	38.8021485031	0.116163196442
47.7267204352	0.77005957213	72.4213385418	0.220700295149
8.40802442997	0.174964476455	130.397961364	0.114114453694
18.1201529546	0.129141026032	142.159184545	0.11762292565
52.2859956659	0.764907101657	76.4644306772	0.298245208154
8.22505771516	0.574570574053	54.2439039277	0.108531629706
1.01914767946	0.832438001648	60.8194219794	0.134627490457
19.6753700305	0.0455429548021	42.9715872677	0.0590288830622
11.8652443319	0.77667546617	130.606707968	0.129275150028
69.250839665	0.487435895871	63.5166478469	0.234939057247
3.60833944605	0.304660390027	132.353587451	0.212274840599
28.2556579472	0.140238654744	43.7186803797	0.0856113202151
3.72322552279	0.133683736686	54.3922238838	0.133577509798
38.2954245426	0.953658253731	43.7186803797	0.256348418961
11.2844313884	0.116579973754	133.798333689	0.169840256435
1.21913455379	0.159507065035	56.9905697806	0.324238631767
16.026673334	0.278288277841	44.2405468917	0.088479560062
47.9756402681	0.742010620441	80.6778160955	0.159673370549
12.7566751867	0.134141056551	133.682973724	0.072422538776
11.688660177	0.474600451674	31.4740440077	0.0741639701117
4.26787062735	0.200940244758	137.110812708	0.255349656872
68.084958738	0.329934934538	58.2540360729	0.0713725581178
49.1585413546	0.802163426618	91.3183996094	0.185231436328
37.0338052184	0.0701467635121	45.0865199744	0.0405389797631
2.08716268918	0.467801629688	138.8247322	0.169917084288
16.2224051684	0.0625552537614	133.353373821	0.111937664525
44.1992923752	0.790273110141	66.4720603046	0.328925130803
14.8756850466	0.0389575487533	47.5585192419	0.0724993666291
6.81876703503	0.215452528459	135.786919767	0.253659444105
68.7083220803	0.504356730857	118.263191626	0.0732164265908
69.9337735656	0.417892788476	53.2386242256	0.239856039841
2.94242570493	0.0635613574633	106.935941649	0.227717239061
32.8362083774	0.0312745750298	136.083559679	0.147739444043
46.8991151787	0.730425183874	87.4181340983	0.175320643285
24.9239617217	0.199507309183	44.196600238	0.0698103917726
11.5482438609	0.116427533799	135.105746635	0.0979293859863
47.5203510011	0.902560380871	64.8295541246	0.260369076604
2.71265355144	0.371672994171	135.693533128	0.158520952753
20.5668008852	0.198074373608	44.4163335063	0.0864052080299
9.32498552397	0.725455641346	61.7313150426	0.116393680001
4.2976559065	0.225970885342	125.184789575	0.237704859956
61.8534528347	0.588137730033	84.2265083773	0.0828455175055
49.1117359159	0.658473525193	77.5246436964	0.157419753526
16.9266142684	0.0247501449629	139.000518815	0.210226097851
54.3964954461	0.62085134434	112.517166662	0.0579532931196
49.1159909558	0.632619708853	65.7963805048	0.132040952737
13.1821791746	0.407831751457	53.8758507035	0.258806910259
8.37185659099	0.828017242958	22.6132999664	0.237909734231
58.6281326061	0.648930784021	63.8901944029	0.161722113296
1.65102110154	0.374264473403	47.29483932	0.103435382121
48.8606885631	0.705028687399	86.4293343913	0.100951281539
56.338921151	0.656705221717	77.9586169012	0.13370555622
27.4472003702	0.183196234016	39.7854548784	0.201698206163
46.2204363179	0.736858149968	86.248054445	0.105330469163
5.74862450537	0.230025788141	138.583025605	0.172042654889
61.6832512395	0.55490581988	76.5633106479	0.134525053319
42.2909069893	0.861736960967	105.71642201	0.164308651016
19.7689809079	0.205513443403	46.1357463301	0.150991823155
2.31267980278	0.532802026429	129.83764153	0.141285904387
1.97865917225	0.394386547441	33.5175634022	0.11291081733
22.5475219491	0.045603930784	137.918332469	0.0799004498056
7.12938494622	0.747803338725	45.1744132817	0.14272002431
48.050103466	0.796797540208	67.8673665578	0.232967142352
50.8094968278	0.728900784326	85.0669881283	0.215399173289
20.8901839161	0.194751182592	41.5158543657	0.118109502052
9.95047638624	0.122799523911	132.968840602	0.180877857989
1.23189967343	0.586613330485	40.4336680197	0.098415962389
13.5949180429	0.280849269082	48.7340922269	0.0867637380107
57.3920435212	0.579814508499	69.8559526353	0.241827954736
10.9972161966	0.108897000031	128.826868496	0.147329695493
3.04241914209	0.0937139805292	156.337473678	0.189713061089
67.4233000368	0.270300424207	54.2878505814	0.180083970174
42.9483106507	0.54039353618	148.113956114	0.128020295095
1.73186685925	0.532283730583	42.1585741752	0.110682809592
7.05066670845	0.147860652486	129.469588305	0.176216968237
49.3670383087	0.771126651814	80.946989349	0.271227413167
2.4530961188	0.256916196173	37.4398022401	0.012394376265
10.9270080385	0.784358439894	64.3626209296	0.0721408366482
4.71677733462	0.25020883816	133.765373699	0.224311204242
51.6988001626	0.685973693045	73.9374980926	0.274556620132
8.77395785959	0.373593737602	43.6582537309	0.119774105535
36.1466294035	0.169933957945	39.027375103	0.00952613641807
10.9312630784	0.0505124973296	140.670491653	0.261419057262
18.035052157	0.06661015656	134.820093387	0.156907567839
23.8729668715	0.15904974517	44.9327066866	0.16569155237
4.30191094638	0.157586321604	34.2426831874	0.0708091538621
47.55864636	0.798687795648	70.6469924009	0.208459057231
28.9768872068	0.122951963866	40.2468947417	0.0816674904256
56.3495587507	0.661125980407	74.6900845363	0.290972171399
1.97653165231	0.451490554521	56.5401165807	0.0495278385692
5.58055043013	0.266641865291	139.527878658	0.211404124931
16.1500694905	0.107006744591	131.469161046	0.0719871809421
7.41021757826	0.0480734580523	34.9458296457	0.211224859941
8.15272203721	0.799449995422	54.892117069	0.0948050532959
39.9442524959	0.982804773095	77.6290169988	0.203311591077
24.2367727812	0.175391308329	42.7024140141	0.104459753495
50.2691067631	0.731370311594	80.0405896176	0.188765517568
22.3666827542	0.113317758721	131.7383343	0.0825894246621
3.36367465299	0.314629963073	138.583025605	0.229817200377
34.4063180929	0.100024994659	134.34766686	0.0691957689482
26.8514947871	0.137647175512	45.6138798181	0.138648148099
44.3248160517	0.881798059023	63.7638477737	0.226001417009
3.83598407959	0.29341032136	138.506118961	0.196243428597
46.8672023796	0.807346385083	71.503952147	0.241110894774
1.42550398794	0.323501968444	40.6424146245	0.173399946959
4.9678246875	0.401093905454	122.844630268	0.0822565039655
12.7864604658	0.681552934355	28.5680715354	0.105381687732
5.39758371532	0.265483321635	134.781640065	0.103819521386
3.46154057021	0.0629820856349	58.4078493606	0.130504395677
45.7374892916	0.823748924223	83.4739219337	0.229740372524
12.2056475223	0.557222907193	37.0552690207	0.130120256411
51.226490736	0.698931089206	94.8176519059	0.15332226803
4.39126678385	0.265849177526	136.830652791	0.166562268038
8.8548036173	0.342983794671	44.5756401257	0.152067413097
68.6296038426	0.523228797266	61.3797418134	0.128839792194
15.3075715944	0.436368511002	45.3666798914	0.0903234285351
4.62529397722	0.217678151799	133.611560411	0.211608999206
4.51466294035	0.154842402417	45.0590533158	0.0956245503951
42.2568666703	0.927499557482	73.0365916929	0.249024163638
35.2254132696	0.0897200537126	47.5859859004	0.0967513589063
9.04202537199	0.14420209357	138.659932249	0.175858438256
50.9860809828	0.73094347972	86.3084810938	0.316888767159
3.29984905479	0.252983245338	62.5058748131	0.0519351112979
51.7264579218	0.733199591052	96.6908780175	0.12781542082
4.84230101106	0.25523935667	131.375774407	0.241648689746
63.357609432	0.547314310129	63.8901944029	0.124076465305
23.7070203162	0.161915616321	45.0096133305	0.124665478845
9.0909583306	0.0752077700125	136.528519547	0.196960488559
56.3601963504	0.640119754631	80.6338694418	0.224772171361
55.138999905	0.0769455854976	54.8152104251	0.0209990958058
14.1672209067	0.307831141087	52.3212378307	0.184872906347
27.6429322046	0.273257759331	41.1423078097	0.189354531108
1.63400094202	0.53883864864	39.3404950102	0.146996774797
41.1909791805	0.96530466628	150.96499527	0.140492016572
8.96968969404	0.148043580432	138.703878903	0.124767915983
12.2481979211	0.116061677908	131.727347636	0.205437161678
34.682895685	0.440819757683	43.8779869991	0.186844821242
2.35735772152	0.221031830805	41.5048677023	0.151273525283
45.7055764925	0.873291909543	114.110232856	0.0800284962273
1.50634974564	0.119323892941	48.080385754	0.24285232611
45.3524081825	0.826431867428	72.5037385174	0.27012621394
8.24846043449	0.535058137761	36.0005493332	0.0153138346806
11.2440085096	0.216702536088	131.386761071	0.129940991421
45.2141193864	0.759998535112	71.2842188787	0.0989281480759
17.7946424038	0.170452253792	45.9050263985	0.108173099725
5.62948338874	0.236489242225	135.330973235	0.229561107534
50.4797312371	0.84164537492	85.4954680013	0.179110817369
47.6522572373	0.719845851009	88.731040376	0.274454182995
12.8481585441	0.117494613483	136.275826289	0.173374337675
3.51047352882	0.115482406079	48.2451857051	0.0570313588831
22.8347371409	0.17353154088	40.8676412244	0.113474221585
60.4450346346	0.613046418653	74.6406445509	0.192632519504
12.5886011114	0.0808175603504	139.11587878	0.148635768995
12.1162916848	0.399447553941	48.9428388318	0.196806832853
5.01250260624	0.0841712393567	44.6360667745	0.0655848598552
3.78066856116	0.313684835353	134.034546953	0.211404124931
46.6906182246	0.744266731773	78.3925901059	0.166485440185
23.9899804682	0.189080416272	41.0324411756	0.117776581356
54.5369117621	0.706461622974	91.5655995361	0.0947538347272
54.892207592	0.637741691336	75.7283242286	0.220828341571
11.2865589084	0.122159276101	135.622119816	0.229433061112
1.95738397286	0.351398480178	56.0457167272	0.117546097797
17.5372124911	0.258440595721	45.1359599597	0.075290778623
14.0565898698	0.369691274758	48.4594256417	0.147893099749
45.4992070584	0.861980864895	86.9841608936	0.23773046924
1.91483357406	0.284050508133	51.1346781823	0.0845357302725
2.83604970794	0.447831995605	135.869319742	0.134448225466
4.00618567477	0.282648060549	119.04873806	0.0648934091778
1.77867229792	0.337343516343	47.5310525834	0.104587799917
8.12719179793	0.948231391339	178.530533769	0.172913370556
59.4493553028	0.588137730033	76.2941373943	0.235143931521
5.55927523074	0.280849269082	134.847560045	0.104178051367
23.4921408023	0.0290489516892	133.919186987	0.134268960476
55.741088048	0.657467421491	76.6512039552	0.290792906409
25.4834994658	0.158470473342	37.0387890255	0.124972790258
2.17651852664	0.163379039888	21.3388470107	0.253121649133
44.6758568417	0.850395428327	75.9041108432	0.262955614323
32.8362083774	0.0843846552934	46.2620929594	0.032497664478
6.74855887702	0.203714651936	131.458174383	0.0708603724308
3.85938679893	0.257282052065	142.192144536	0.219394221648
21.0603855112	0.190299935911	47.2618793298	0.126125208053
53.6518634672	0.684205389569	91.7303994873	0.218344240989
22.9836635367	0.0318538468581	130.733054598	0.0629471035674
54.1667232926	0.656400341807	74.9702444533	0.257603273894
2.48288139796	0.545698446608	143.735770745	0.0743944536708
2.55947211579	0.156946073794	40.3677480392	0.10348660069
9.49944215902	0.726278817103	148.048036134	0.135139676144
4.66146181619	0.0230428174688	110.627460555	0.168021997246
5.95286641958	0.25712961211	136.63289285	0.119722886966
42.9100152918	0.923597094638	54.0791039766	0.273199328062
46.6501953457	0.099384746849	43.9768669698	0.0655848598552
29.0364577651	0.120390972625	44.5371868038	0.0819491925534
9.19733432759	0.0828602557451	129.211401715	0.111937664525
55.66875237	0.661827204199	67.6860866115	0.238806059183
5.67841634736	0.30633722953	148.251289407	0.180083970174
59.762100734	0.627711142308	104.546342357	0.151734492401
45.8587579282	0.454234473708	46.9981994079	0.199777509837
2.4956465176	0.253806421094	52.2772911771	0.129633680009
8.91650169555	0.102494521928	130.798974578	0.152989347334
16.7798153926	0.299599383526	52.2333445235	0.0894527128673
5.40822131502	0.253501541185	131.491134373	0.123308186775
44.275883093	0.874267525254	81.0238959929	0.218651552401
1.15743647554	0.374935209204	28.4856715598	0.179879095899
12.1886273628	0.112555558947	136.418652913	0.179290082359
51.8328339188	0.653625934629	71.3391521958	0.255528921862
1.70420910003	0.842651478622	91.4447462386	0.133987258348
15.5203235883	0.404356120487	37.9726554155	0.0436120938849
12.9268767818	0.109598223823	134.199346904	0.150300372477
48.0671236256	0.725455641346	74.6186712241	0.315019289402
3.51260104876	0.278013885922	149.624622333	0.0709628095682
23.8346715126	0.114110446486	42.3288674581	0.0843052467134
60.923726621	0.583716971343	72.3664052248	0.214835769034
14.3416775417	0.365270516068	38.4066286203	0.132860449837
17.2393596996	0.0646284371471	133.452253792	0.162900140376
1.6595311813	0.251611285745	41.3455610828	0.113755923713
9.09946841036	0.159689992981	129.343241676	0.278833370619
15.0352490421	0.0635003814814	43.6088137455	0.0852015716655
45.722596652	0.824724539933	83.5068819239	0.113320565879
62.9916760024	0.58298525956	69.3780327769	0.11821193919
13.3077028511	0.674998016297	35.2150028993	0.166254956626
1.74250445895	0.561094882046	122.114017151	0.216321107526
46.1949060786	0.818596453749	76.805017243	0.186972867663
2.59138491488	0.384691366314	47.5420392468	0.0382853627405
31.2554610622	0.113409222694	47.0311593982	0.0896831964264
8.82289081821	0.202342692343	136.594439528	0.107251165489
1.01702015952	0.59719266335	68.7627796258	0.194169076565
55.0751743069	0.545881374554	79.6176030763	0.245413254545
51.7349680016	0.660973540452	90.7141331217	0.253505788399
8.52078298677	0.011000061037	40.3952146977	0.221980759367
8.92288425537	0.655272286142	148.482009339	0.0911941442029
28.1514094702	0.125726371044	40.6314279611	0.0717823066673
11.512076022	0.392953611866	142.33497116	0.0456608366327
28.1471544303	0.116854365673	40.6973479415	0.0891454014551
44.9439243541	0.76530344554	81.2930692465	0.213427258394
6.73366623744	0.0252684408094	97.2511978515	0.320294801977
8.96117961428	0.281398052919	137.061372723	0.147867490464
1.09999343716	0.634967284158	72.8827784051	0.206026175218
48.2075399416	0.77981572924	67.9607531968	0.231046446026
2.62329771398	0.532497146519	138.017212439	0.0434584381788
48.756440086	0.739693533128	77.8762169256	0.285901533098
7.99103052179	0.155055818354	137.028412732	0.166792751597
1.60208814293	0.200940244758	62.9618213446	0.168815885061
24.9728946803	0.278044373913	44.8283333842	0.0535741054961
1.92334365382	0.0534393444624	40.7138279366	0.235989037905
49.1989642335	0.750943601794	72.4542985321	0.226667258402
18.422260786	0.0972505874813	129.859614856	0.0476071422431
13.9523413928	0.42274037904	42.2849208045	0.113269347311
18.5967174211	0.0266708883938	131.644947661	0.189431358961
2.25949180429	0.440575853755	27.0134586627	0.0291172389441
51.509450888	0.700790856655	73.4540849025	0.287412480875
10.1611008603	0.409051271096	35.6160161138	0.108045053304
49.3627832688	0.802376842555	91.1316263314	0.220546639443
42.2611217102	0.102707937864	43.1803338725	0.107840179029
11.4439953839	0.0990798669393	137.583239235	0.181902229362
2.07439756954	0.469722373119	139.747611927	0.118365594896
2.41905579977	0.313318979461	51.5466780602	0.0648934091778
13.5821529233	0.0924639728996	137.248146001	0.168226871521
52.5838484575	0.659266212958	72.6740318003	0.152118631666
10.629155247	0.537680104984	32.8968169195	0.143770004969
18.4158782262	0.256306436354	46.7674794763	0.0737286122778
52.6689492551	0.678687063204	72.8498184149	0.261444666546
1.99780685171	0.699571337016	157.480086673	0.127200797996
4.41254198325	0.195452406384	127.06900235	0.153578360874
19.0349865287	0.419844019898	51.5466780602	0.0407182447536
47.628854518	0.812742759484	75.1734977264	0.248051010833
4.32744118566	0.304660390027	142.988677633	0.193656890878
15.0926920804	0.0711833552049	45.6852931303	0.0912709720559
3.93384999682	0.293806665242	141.049531541	0.172503622007
11.7482307353	0.977957182531	11.423383282	0.126099598769
4.59550869806	0.100207922605	124.827723014	0.181108341548
54.2028911316	0.670272377697	81.1392559587	0.144999250617
11.7716334546	0.0567320474868	45.3007599109	0.0889661364646
51.2307457759	0.68582125309	78.0080568865	0.219163738088
7.86550684535	0.140147190771	135.979186377	0.197190972118
15.0820544807	0.614113498337	30.1831110569	0.113166910173
43.5035933549	0.897103030488	81.1008026368	0.267462848368
7.56127149397	0.13505569628	137.638172552	0.193708109447
33.9999617844	0.0252379528184	47.1959593493	0.0181052466745
8.9781997738	0.434447767571	43.9713736381	0.111860836671
20.715727281	0.11234214301	43.5209204382	0.1289934479
62.1385405066	0.531369090854	59.3307290872	0.144871204196
6.85918991388	0.178257179479	138.615985595	0.183976581395
48.7394199265	0.719053163244	101.590929899	0.133577509798
5.16142900202	0.350697256386	143.04361095	0.187689927625
53.6710111467	0.639205114902	74.1077913755	0.232506175234
40.8463209503	0.122586107974	40.3567613758	0.0203844729815
3.88491703821	0.0387441328166	121.756950591	0.240598709087
13.7374618789	0.600576830348	31.5784173101	0.133987258348
54.4262807253	0.59496704001	62.3355815302	0.0342903143823
2.24247164477	0.513198248238	132.749107334	0.270894492471
46.0864025617	0.873139469588	80.4416028321	0.162695266102
18.5924623812	0.327221503342	43.52641377	0.106354840537
51.5860416058	0.717132419813	80.0570696127	0.260650778732
24.0133831875	0.0418843958861	133.045747246	0.107635304754
2.21906892544	0.485393200476	145.592516861	0.17688280963
13.7034215598	0.087524918363	135.336466567	0.132040952737
61.1790290138	0.554174108097	64.093447676	0.219496658785
9.17605912819	0.778413281655	23.0307931761	0.165281803821
1.96589405261	0.375057161168	34.6272164068	0.0765200242717
14.5948524146	0.29941645558	41.9223609119	0.0843308559977
6.08902769572	0.208836634419	133.419293802	0.235758554346
45.122636029	0.89527375103	62.4069948424	0.291433138518
17.0861782639	0.0581954710532	43.6033204138	0.0321647437814
63.2959113538	0.543503311258	68.8177129429	0.0764431964186
29.8959758207	0.0626772057253	45.3886532182	0.0474022679683
46.8374171004	0.840273415326	112.923673208	0.230022074652
3.5572789675	0.405758568072	125.970336009	0.269101842566
10.6334102869	0.247952726829	125.052949614	0.135907954674
43.7440031081	0.0588357188635	46.212652974	0.0289891925223
60.7875653449	0.5605765862	75.497604297	0.270331088215
1.57868542359	0.518655598621	39.7579882199	0.175499908276
7.63573469186	0.652863734855	58.1881160924	0.0442011074249
8.37611163087	0.139811822871	131.551561022	0.115548573618
3.42537273124	0.1025859859	53.062837611	0.179623003056
52.6795868548	0.71484582049	82.3752555925	0.226974569814
1.65314862148	0.578808404798	41.4114810633	0.227205053374
15.496920869	0.326672719504	42.1311075167	0.111092558141
67.7956160262	0.457283272805	55.1338236641	0.108736503981
47.9756402681	0.772468123417	112.231513413	0.158188032056
7.8144463668	0.628686758019	46.3225196081	0.150914995302
62.2619366631	0.553503372295	66.7687002167	0.092602654842
2.11482044839	0.558411938841	140.132145146	0.194578825115
50.2520866036	0.773169347209	83.4629352702	0.173886523362
8.92713929525	0.799358531449	13.5053559984	0.110119405336
58.4792062103	0.62557698294	64.4450209052	0.277706562107
70.238008917	0.00398782311472	44.103213599	0.020128380138
1.58719550335	0.763779045991	134.364146855	0.220085672325
10.2547117376	0.140177678762	136.621906186	0.238345092065
3.59982936629	0.209385418256	52.7497177038	0.109760875355
56.8622910562	0.675394360179	70.2404858547	0.279345556305
7.04641166857	0.860060121464	7.14957121494	0.0131882640798
2.70201595174	0.388380413221	130.557267983	0.246898593037
15.9522101361	0.42621601001	121.905270547	0.0843052467134
40.6144212769	0.13789107944	39.2855616932	0.078312674176
49.1393936752	0.775120578631	81.6171758171	0.22105882513
44.805635558	0.846797845393	82.0346690268	0.254991126891
11.93332497	0.494478621784	39.0823084201	0.0901185542603
8.32717867226	0.0267318643757	39.3020416883	0.141618825084
4.52317302011	0.304873805963	130.167241432	0.141516387946
1.61485326257	0.581643787957	43.5319071017	0.0113187863224
12.9885748601	0.294294473098	52.2278511917	0.112065710946
49.1393936752	0.756553392132	80.1284829249	0.232147645253
8.26335307407	0.139202063051	133.232520524	0.230944008888
17.3265880171	0.00221951963866	162.226325266	0.196806832853
39.0677142807	0.977012054811	90.0659199805	0.277322422842
14.0757375493	0.0545064241462	131.068147832	0.112577896633
10.7482963636	0.803870754112	42.2574541459	0.0728066780412
61.4088011673	0.576125461592	72.0807519761	0.179418128781
24.1899673425	0.140086214789	42.1036408582	0.0511924420518
44.5801184444	0.745181371502	102.870876186	0.0860722873334
5.021012686	0.241977080599	131.32084109	0.282034531162
12.8332659045	0.141641102329	135.594653157	0.081923583269
4.84655605094	0.0521893368328	34.473403119	0.189482577529
43.0376664881	0.875121189001	75.5964842677	0.228050159757
26.1387756073	0.157921689505	47.4761192663	0.115471745765
6.26348433077	0.303135990478	142.505264443	0.05459847687
23.6495772778	0.334660573138	45.9654530473	0.1024878386
58.8345020403	0.589418225654	79.809869686	0.182926600736
1.51060478552	0.13380568865	48.6516922514	0.238652403477
15.3096991143	0.0564881435591	132.551347392	0.200033602681
55.4900406951	0.617528153325	83.5343485824	0.206999328023
11.2206057902	0.4208501236	35.1545762505	0.137367683882
5.88265826157	0.0389575487533	55.3151036103	0.0716286509613
8.63141402363	0.0986835230567	129.650868252	0.19496296438
7.56765405379	0.538808160649	51.6840113529	0.096802577475
41.6186106884	0.820090365307	90.7580797754	0.0559813782248
58.3919778928	0.657802789392	72.0972319712	0.206307877346
12.99070238	0.309142124699	40.0985747856	0.129659289293
56.5750758643	0.650790551469	77.3158970916	0.271509115295
4.0402259938	0.257373516037	136.819666128	0.177369386033
2.37225036109	0.91893243202	146.641743217	0.0127272969615
56.7920828982	0.626979430525	72.2510452589	0.233658593029
28.7769003325	0.0890493179113	44.2020935698	0.119774105535
10.0355771838	0.0924334849086	138.588518937	0.227998941188
6.49538400419	0.490423718986	177.596667379	0.0505266006587
11.1801829114	0.211824457533	129.337748344	0.111707180965
1.0106375997	0.328654438917	43.1473738823	0.274377355142
47.9330898694	0.772132755516	92.3346659749	0.196883660706
38.3635051807	0.129842249825	42.9496139409	0.0707579352934
58.9791733962	0.606796380505	65.7139805292	0.146458979825
13.8608580354	0.0806956083865	134.842066713	0.190302074629
20.4923376874	0.256580828272	48.7340922269	0.113755923713
1.33189311059	0.308745780816	56.6335032197	0.236629270014
7.84423164595	0.204263435774	135.858333079	0.134550662604
1.89568589461	0.48740540788	42.0651875362	0.124665478845
15.0501416817	0.392648731956	53.8209173864	0.0973403724463
53.1540238013	0.606369548631	76.112857448	0.153219830893
54.9709258298	0.622223303934	84.2594683676	0.238934105605
6.64643791991	0.1407264626	130.980254524	0.156805130702
15.5160685484	0.251397869808	42.7298806726	0.115394917911
3.61472200587	0.299934751427	146.740623188	0.125587413082
28.0024830744	0.223226966155	49.0801721244	0.147765053327
19.0668993278	0.0521588488418	137.423932615	0.145204124892
54.9219928712	0.759144871364	93.713492233	0.207537122995
4.12532679139	0.0545674001282	54.463637196	0.168175652952
13.1843066946	0.188135288553	140.252998444	0.0802845890708
53.9390786591	0.655912533952	76.1073641163	0.197472674246
31.934139923	0.209751274148	38.9284951323	0.0763919778499
2.29140460339	0.142494766076	162.923978393	0.24031700696
3.30410409467	0.397709738456	137.253639332	0.257833757453
42.6036524205	0.962804651021	106.639301737	0.235732945061
20.292350813	0.137647175512	44.2020935698	0.0625885735865
35.495608302	0.29435544908	42.554094058	0.068888457536
18.2307839915	0.277068758202	44.8612933744	0.0874551886881
20.6540292028	0.0877383342998	138.203985717	0.142105401486
53.977374018	0.685607837153	86.0667744987	0.247282732302
2.25098172453	0.213623249001	64.7856074709	0.234887838678
53.3625207554	0.705028687399	102.222663045	0.103768302818
1.38720862902	0.492313974425	54.3757438887	0.177164511758
59.2493684285	0.355727774895	49.9700918607	0.219445440216
7.98464796197	0.357099734489	132.617267373	0.106943854077
11.3525120265	0.115238502152	134.644306772	0.153885672286
14.9054703258	0.518259254738	35.9730826746	0.0356732157371
1.58719550335	0.359630237739	93.5157322916	0.322036233313
46.7842291019	0.789846278268	102.354503006	0.244260836749
4.09554151224	0.285026123844	138.940092166	0.204873757422
50.8052417879	0.681796838282	78.3486434523	0.274018825161
13.5778978834	0.772437635426	159.853205969	0.0613849372222
3.58706424665	0.299507919553	45.6248664815	0.0713981674021
45.4843144188	0.868169927061	91.0986663411	0.101489076511
9.4015762418	0.645302713095	37.6155888546	0.0771602563804
54.5815896809	0.655790581988	72.7289651173	0.167100063009
5.56140275068	0.187159672842	133.430280465	0.282777200408
3.70620536327	0.354111911374	136.325266274	0.140901765122
48.5968760905	0.739266701254	74.376964629	0.310102306807
14.824624568	0.110909207434	140.198065126	0.0514741441796
10.1611008603	0.0437136753441	45.7621997742	0.0910404884968
56.5708208245	0.67508948027	74.3714712973	0.144922422764
50.4754761973	0.680821222571	71.9818720054	0.138622538815
3.21687577715	0.531460554827	132.595294046	0.22087956014
14.896960246	0.0547808160649	50.8655049287	0.0713469488334
