range	ranges_ratio	azimuth	contribution
17.3882860954	0.502283547472	70.9656056398	1.47251732937
5.09973092376	0.018317178869	28.1505783258	1.46812081512
2.72754619102	0.0370977813044	32.9297769097	1.44438861067
12.7907155057	0.662132084109	62.3685415204	1.48382265171
1.25104735288	0.104049409467	59.7482222968	1.47247246698
16.3223986056	0.56185708182	58.4353160192	1.4516114555
12.4311646359	0.66783333842	60.0943021943	1.46928723727
6.42943088606	0.0156952116459	130.447401349	1.48422641323
1.05106047855	0.312831171606	86.3744010743	1.36058566565
19.0456241284	0.4741736198	62.6651814325	1.46170549331
1.92972621364	0.0294148075808	163.87981811	1.45147686833
15.4224576711	0.698778649251	70.0592059084	1.48305999108
19.1754028447	0.456856440931	61.9455549791	1.48467503713
13.167286535	0.00316464735862	154.898220771	1.48220760566
15.003336243	0.598595110935	63.7308877834	1.45950723619
1.44677918733	0.0499637134922	110.990020447	1.46713384253
20.5178679266	0.411459822382	66.1424604022	1.45174604267
6.19965873258	0.0463661305582	138.703878903	1.44690090452
19.269013722	0.495728629414	61.2808618427	1.47754191708
4.13809191103	0.0775858333079	130.634174627	1.44806732667
18.6179926205	0.449021027253	64.0220343638	1.46982558595
5.08058324431	0.0353904538102	177.580187384	1.47601659581
17.5223198516	0.520240974151	68.405713065	1.45201521702
6.48049136462	0.0164269234291	3.07351908933	1.48238705522
1.4127388683	0.154537522507	167.90643025	1.48090659635
19.0839194873	0.487771263771	58.4847560045	1.37301254776
13.7076765997	0.622070863979	60.6985686819	1.4797401742
1.75314205865	0.0627076937162	58.9956358531	1.43685172911
5.10398596364	0.0450551469466	176.811120945	1.46134659419
14.5225167366	0.584723075045	64.225287637	1.47830457771
8.5654609055	0.00566466261788	24.6897793512	1.47094714571
21.0646405511	0.422831843013	68.2628864406	1.47269677893
6.40602816673	0.00956712546159	9.56114383374	1.4635897137
16.7223723542	0.519173894467	66.2138737144	1.46354485131
1.46167182691	0.211001281777	2.87026581622	1.46332053936
14.3459325816	0.587070650349	55.1448103275	1.44183145442
19.8200413864	0.452191778314	65.8403271584	1.4562322817
2.47224379826	0.0388965727714	33.8087099826	1.47870833922
1.13190623626	0.329294686728	176.76168096	1.46708898014
23.8963695908	0.39749632252	62.2531815546	1.46215411722
1.45316174715	0.298654255806	132.540360729	1.480637422
19.2094431637	0.434508743553	61.8576616718	1.46906292532
19.834934026	0.448868587298	56.7433698538	1.42509778286
1.95100141304	0.22465990173	140.115665151	1.48050283483
1.60208814293	0.138348399304	17.0375682852	1.44542044565
12.6715743891	0.745547227393	49.4372386853	1.47996448615
19.8796119447	0.471246772668	54.4911038545	1.47960558703
11.2780488286	0.00432319101535	53.3979308451	1.47763164186
12.8566686238	0.00292074343089	123.245643483	1.47718301795
17.4201988945	0.515667775506	62.4399548326	1.47646521971
21.3986611817	0.383227942747	65.2964873196	1.45412374936
1.60634318281	0.215269600513	179.892880032	1.46143631897
16.4245195627	0.549844813379	68.405713065	1.41670851588
2.08716268918	0.0696894436476	26.4970854823	1.411549341
21.3922786218	0.416276924955	64.6702475051	1.44434374828
8.95692457441	0.00633539841914	131.496627705	1.47117145766
22.4411459521	0.387618213446	64.1209143345	1.48180384415
6.63580032021	0.00371343119602	15.5378887295	1.47574742147
18.4158782262	0.455941801202	65.9392071291	1.45730897907
1.67655134082	0.215483016449	121.070284127	1.45977641053
1.9382362934	0.0568539994507	77.7663502915	1.48229733044
20.7455125602	0.448350291452	62.2312082278	1.42388649832
16.7627952331	0.482252937407	62.9728080081	1.45910347468
2.53181435657	0.128897122105	127.047029023	1.4838675141
1.01489263958	0.459447920164	138.517105625	1.48104118352
11.8524792123	0.715760460219	60.9347819452	1.45860998838
20.1646996166	0.361185125278	65.8348338267	1.47821485293
4.7316699742	0.00862199774163	147.982116153	1.47866347683
14.4991140173	0.593747520371	67.7684865871	1.44551017043
3.1551776989	0.0446588030641	26.3817255165	1.47960558703
9.46965687987	0.0129817804498	26.8376720481	1.45555934585
13.3906761287	0.663260139775	77.4312570574	1.46237842917
17.0542654648	0.51517996765	63.5496078372	1.43474319676
7.07619694773	0.0142013000885	16.685995056	1.48220760566
13.1077159767	0.00298171941282	96.6743980224	1.46969099878
14.262959304	0.65396130253	68.1035798212	1.43339732506
6.87833759334	0.00767687002167	104.875942259	1.47884292639
14.2140263454	0.618808648946	63.6814477981	1.48471989952
2.20843132574	0.105482345042	146.564836573	1.46435237434
21.6773662938	0.392557267983	60.473342082	1.4755679719
7.6378622118	0.0133476363414	138.802758873	1.4774521923
18.7158585377	0.450941770684	61.7093417158	1.46605714517
16.3500563648	0.563229041414	61.9895016327	1.46996017312
9.33349560373	0.0307562791833	0.293893246254	1.41065209319
2.23821660489	0.0188659627064	120.834070864	1.46529448453
16.0224182941	0.549570421461	62.4619281594	1.47722788034
1.18083919487	0.273166295358	157.068086795	1.47408751303
20.0753437792	0.437801446577	68.0761131626	1.48463017474
1.96589405261	0.0996286507767	20.4049806207	1.48310485347
17.1819166612	0.490606646931	63.8023010956	1.46480099824
4.99122740684	0.0223111056856	27.9308450575	1.47368375151
15.8734918983	0.521094637898	62.2037415693	1.45838567643
18.9839260501	0.449112491226	64.0824610126	1.48059255961
2.42756587953	0.165696127201	142.653584399	1.4815795322
20.9731571937	0.42905139317	64.5384075442	1.45291246482
1.05531551843	0.393685323649	173.163548692	1.44995154706
1.26381247252	0.266519913327	168.268990143	1.4797401742
18.1265355144	0.491460310678	65.8018738365	1.45111796921
1.35104079005	0.189080416272	12.9670094913	1.43151310466
19.8370615459	0.448411267434	62.8189947203	1.4829702663
1.7722897381	0.1889889523	148.240302744	1.47386320107
16.3585664446	0.512771416364	63.1376079592	1.47489503605
7.96337276257	0.00322562334056	41.697134312	1.47162008156
14.4820938578	0.599814630573	70.5920590838	1.3976868624
13.2608974124	0.0013658558916	121.449324015	1.46098769507
21.5433325376	0.410667134617	61.4346751305	1.45008613423
13.4885420459	0.00231098361156	112.70393994	1.47906723835
16.2798482068	0.547680166021	62.4948881497	1.46529448453
16.8436409908	0.481490737632	62.2531815546	1.40854356085
6.0400947371	0.0428295236061	138.692892239	1.46080824551
1.62974590215	0.187037720878	0.727866451003	1.46740301688
14.1587108269	0.709022614216	61.6159550768	1.4755679719
2.62117019404	0.148287484359	135.781426435	1.46372430087
13.9821266719	0.540637440107	59.0945158238	1.48319457825
1.0319127991	0.478015106662	135.583666494	1.46991531073
15.390544872	0.552436292611	61.1490218818	1.42989805861
1.2893427118	0.341703299051	133.210547197	1.48332916542
16.0713512527	0.55902169866	64.2143009735	1.47386320107
17.3840310555	0.50886895352	62.2806482131	1.48422641323
10.9057328392	0.0107561571093	132.490920743	1.48050283483
8.23782283479	0.00621344645528	51.3379314554	1.47031907224
11.9056672108	0.692467635121	60.9787285989	1.47615118298
4.45721990198	0.0931347087008	135.759453108	1.48027852288
16.2798482068	0.509356761376	70.6469924009	1.37220502473
16.1777272497	0.540698416089	60.9732352672	1.46933209966
2.64670043331	0.15240336314	139.060945463	1.47027420985
14.9778060037	0.582924283578	56.4137699515	1.48332916542
6.29114208999	0.0246281929991	139.027985473	1.45632200648
14.1480732272	0.579753532517	60.006408887	1.46686466819
4.70613973492	0.0694150517289	139.132358776	1.4248734709
19.1605102051	0.454112521744	65.8623004852	1.48463017474
4.72315989444	0.0266708883938	15.7741019929	1.47924668791
17.8797432014	0.506521378216	61.3083285012	1.4493234736
2.89136522638	0.0261830805383	35.3633228553	1.46587769561
1.97014909249	0.229355052339	138.165532395	1.42379677354
16.9010840292	0.502283547472	64.7856074709	1.42801383822
13.2417497329	0.00606100650044	1.33762627033	1.4433119133
20.4519148085	0.430972136601	63.2419812616	1.45017585901
9.32073048409	0.00490246284371	151.272621845	1.45511072194
16.9691646672	0.464021118809	57.7541428877	1.45775760297
7.73785564897	0.0157866756188	2.35389263588	1.45959696097
21.0008149529	0.356764366588	65.3349406415	1.40607612938
19.834934026	0.435484359264	66.8456068606	1.48229733044
1.19147679457	0.298196935942	178.514053774	1.37265364864
9.83984534937	0.011914700766	154.019287698	1.47619604537
17.7967699238	0.501551835688	66.5599536119	1.46354485131
13.3247230106	0.680668782617	52.5684377575	1.40755658826
1.79994749732	0.17292178106	96.0866115299	1.47417723781
1.84462541605	0.101092074343	21.7178868984	1.47368375151
24.7218473274	0.393014587848	63.7034211249	1.48198329371
1.26381247252	0.132586169012	64.3241676077	1.47538852234
17.8754881615	0.50664333018	55.359050264	1.45313677677
1.56592030396	0.232281899472	123.069856868	1.44806732667
17.5648702504	0.508747001556	71.8720053713	1.42025264471
13.275790052	0.00895736564226	91.3019196142	1.47310054044
15.918169817	0.549905789361	61.6599017304	1.42298925051
14.0672274695	0.612802514725	53.7934507279	1.45869971316
1.30423535137	0.22371477401	116.47236549	1.45968668575
1.78930989762	0.182037690359	89.8736533708	1.478798064
15.601169346	0.543594775231	63.6320078127	1.48117577069
1.30210783143	0.123744651631	25.1127658925	1.47960558703
16.8457685107	0.533228858303	60.8523819697	1.47763164186
3.43388281099	0.038347788934	7.02871791742	1.46466641107
17.6052931292	0.527039796136	67.0488601337	1.47000503551
14.9586583242	0.609631763665	74.0198980682	1.46273732829
1.78718237768	0.157677785577	172.306588946	1.48050283483
4.28489078687	0.0621893978698	176.492507706	1.48332916542
20.7774253593	0.398167058321	63.6979277932	1.47386320107
8.08464139914	0.0157561876278	2.03527939695	1.48270109196
18.2286564715	0.460850367748	60.4184087649	1.47287622849
18.3286499087	0.455210089419	61.9400616474	1.47799054098
1.63400094202	0.13822644734	153.86547441	1.47449127454
20.0413034601	0.480423657949	62.3300881985	1.41863759866
4.00405815483	0.00353050325022	142.10974456	1.47408751303
20.5668008852	0.403350016785	62.5278481399	1.47570255908
3.89342711797	0.0835614795373	129.843134861	1.45008613423
1.22551711361	0.148013092441	104.892422254	1.48274595435
20.1987399357	0.418045228431	62.5168614765	1.44483723457
17.5840179298	0.475210211493	60.566728721	1.47991962376
8.26122555413	0.0070061342204	62.3136082034	1.4755679719
1.82760525654	0.149994811853	172.465895566	1.48090659635
14.720376091	0.588290169988	60.7644886624	1.45659118082
1.40848382842	0.106396984771	112.418286691	1.47615118298
13.2247295734	0.568442487869	62.3355815302	1.46942182444
1.94036381334	0.0170061952574	162.863551744	1.42016291993
20.3710690508	0.463533310953	63.252967925	1.45614255692
13.7544820384	0.689266396069	70.5096591082	1.4801887981
2.62542523392	0.0277989440596	172.196722312	1.48395723888
16.8798088298	0.509844569231	64.8570207831	1.42294438812
9.14201880916	0.00664027832881	21.6025269326	1.47884292639
19.3583695595	0.445179540391	57.6882229072	1.46955641161
1.40848382842	0.222495254372	154.145634327	1.48283567913
19.588141713	0.435697775201	59.8086489456	1.47363888912
2.74669387048	0.0627686696982	146.581316568	1.42666796652
12.0311908872	0.707010406812	62.9233680227	1.39333521055
5.09973092376	0.00600003051851	5.91906491287	1.47054338419
15.8160488599	0.532497146519	60.2041688284	1.47924668791
1.42550398794	0.145330149236	69.916379284	1.48054769722
19.7094103496	0.406307351909	61.7148350475	1.46031475921
26.7940517487	0.0012743919187	150.811181982	1.46565338366
2.34459260188	0.0856346629231	17.8890346995	1.47960558703
16.8627886703	0.534173986023	61.1050752281	1.47493989844
2.15949836713	0.0851468550676	154.030274361	1.40665934046
16.8521510706	0.55490581988	66.3237403485	1.47301081566
14.1459457073	0.61801596118	63.4232612079	1.47574742147
3.927467437	0.04011609241	141.747184668	1.43555071979
15.6266995853	0.544265511032	55.3700369274	1.45385457502
1.03404031903	0.130939817499	29.8535111545	1.42967374666
8.54631322605	0.00289025543992	48.2232123783	1.46659549385
17.8137900833	0.505118930631	56.2434766686	1.44878512492
1.94249133328	0.179629139073	1.10141300699	1.48193843132
15.6905251835	0.564753440962	59.1988891263	1.47915696313
16.8670437101	0.613656178472	65.4063539537	1.475119348
5.45715427363	0.0123110446486	119.477217933	1.47390806346
13.8906433145	0.626735526597	67.1587267678	1.48166925698
3.21900329709	0.0309087191382	113.588366344	1.47117145766
17.6520985679	0.493320078127	51.326944792	1.46462154868
1.7935649375	0.110390911588	120.427564318	1.44761870277
18.4073681465	0.461521103549	63.8462477493	1.47803540337
2.58925739494	0.0823724478896	147.191076388	1.48265622957
23.1432275322	0.00167073580126	101.629383221	1.46071852073
16.0862438923	0.543533799249	61.2259285257	1.46538420931
5.52948995158	0.0186525467696	8.30866420484	1.48440586279
17.2138294603	0.514905575732	63.0057679983	1.47399778825
2.60415003452	0.041945371868	58.7154759362	1.47915696313
10.2291814983	0.793596301157	68.1420331431	1.45892402512
3.50196344906	0.0298111514634	156.392406995	1.47000503551
16.9521445077	0.522954405347	65.4777672658	1.43851163755
17.8839982413	0.531795922727	61.0995818964	1.42756521432
1.16381903536	0.282343180639	85.5668813135	1.4087678728
13.9417037931	0.610546403394	62.5333414716	1.47673439405
5.57416787031	0.0252684408094	130.738547929	1.48422641323
2.59563995476	0.0663662526322	145.026703696	1.46076338312
14.3586977013	0.47700900296	58.0892361217	1.47274164132
17.998884318	0.473807763909	64.4834742271	1.42680255369
1.55102766438	0.167403454695	152.530594806	1.47718301795
15.4543704702	0.557344859157	63.0661946471	1.47839430249
2.833922188	0.0275245521409	35.5061494797	1.47947099986
2.94668074481	0.0357258217109	119.219031343	1.43878081189
15.5267061481	0.55524118778	64.3241676077	1.43514695828
23.8325439927	0.363837580493	68.5155796991	1.42756521432
4.31680358596	0.032829462569	141.379131443	1.47453613693
3.24240601642	0.00685369426557	144.39497055	1.48175898176
16.203257489	0.523472701193	58.7813959166	1.45223952897
16.1883648494	0.570972991119	75.3328043458	1.44438861067
2.07652508948	0.140909390545	173.306375317	1.47915696313
9.06542809133	0.00417075106052	147.267983032	1.46933209966
16.5096203603	0.507740897855	65.0547807245	1.45192549223
1.45528926709	0.24545271157	178.849147008	1.48422641323
17.8925083211	0.466521134068	71.3006988739	1.48050283483
18.0924951954	0.491887142552	67.1092867824	1.46753760405
5.2784425987	0.00999395733512	38.7527085177	1.45416861175
1.45528926709	0.109293343913	65.774407178	1.48422641323
14.40337562	0.608564683981	55.4414502396	1.48050283483
2.24034412483	0.210574449904	137.85790582	1.46507017258
20.8327408777	0.427953825495	62.4784081545	1.43806301364
1.16169151542	0.172068117313	161.473738823	1.47677925644
21.598648056	0.437496566668	66.0106204413	1.47754191708
14.7863292091	0.580210852382	60.8908352916	1.47785595381
1.63400094202	0.0472197943052	111.325113681	1.37938300718
13.9778716321	0.00103048799097	4.86983855708	1.47363888912
18.1010052752	0.513015320292	64.4889675588	1.47920182552
12.1843723229	0.72240684225	64.1813409833	1.47592687103
1.5148598254	0.308623828852	136.462599567	1.4078257626
2.1743910067	0.0604210943937	119.30692465	1.45371998785
13.0417628586	0.694266426588	60.4843287454	1.39589236679
8.11017163841	0.00346952726829	76.6347239601	1.47615118298
20.1838472961	0.389051149022	61.7203283792	1.46708898014
1.78079981786	0.120909268471	152.744834742	1.48323944064
17.9010184008	0.458990600299	64.3791009247	1.46991531073
17.0223526657	0.51578972747	68.5869930113	1.42630906739
14.120415468	0.00221951963866	96.009704886	1.45084879487
19.1073222066	0.465454054384	63.4507278665	1.44752897799
1.41061134836	0.23063554796	151.920834986	1.42868677408
2.05950492996	0.132494705039	7.72087771233	1.47991962376
21.2412247061	0.422557451094	67.7629932554	1.44721494126
2.15524332725	0.0858785668508	120.350657674	1.4765100821
19.5753765934	0.453441785943	67.3345133824	1.46336540175
11.2716662688	0.0300245674001	133.825800348	1.46502531019
14.2310465049	0.531552018799	60.2041688284	1.43837705037
2.80839194873	0.118531205176	127.047029023	1.46067365834
23.7793559942	0.443411236915	63.5166478469	1.46569824605
29.2343171195	0.315575090793	74.1022980438	1.47413237542
10.101530302	0.642436841945	48.5637989441	1.45448264848
1.05744303837	0.210086642048	71.5808587909	1.47426696259
14.0885026689	0.649357615894	64.6812341685	1.47139576961
16.6904595551	0.564905880917	61.4401684622	1.4673132921
1.9488738931	0.091183477279	22.7066866054	1.44151741769
16.3606939645	0.511734824671	68.125553148	1.42245090183
58.0898700614	0.00188415173803	71.4215521714	1.48467503713
1.33402063053	0.152372875149	68.3342997528	1.45672576799
14.8756850466	0.553716788232	63.8572344127	1.43528154545
16.554298279	0.549844813379	61.7862483596	1.44568961999
1.15743647554	0.396429242836	131.941587573	1.47754191708
1.00212751994	0.144141117588	28.1670583209	1.47947099986
16.0202907741	0.57697912534	59.5284890286	1.4410239314
1.84462541605	0.126092226936	80.1559495834	1.4746707241
21.1880367076	0.443746604816	62.0059816279	1.43801815125
16.307505966	0.518137302774	64.6372875149	1.44438861067
2.11907548827	0.135817896054	4.27106540117	1.47538852234
1.92121613388	0.0942627643666	14.5381023591	1.45596310736
14.0799925892	0.362618060854	60.8578753014	1.48135522025
3.01688890282	0.028286751915	150.827661977	1.44407457394
15.9862504551	0.521033661916	62.7201147496	1.47458099932
3.35729209317	0.0153598437452	159.106112857	1.4834188902
13.8502204357	0.574326670125	60.7260353404	1.45775760297
1.46805438673	0.344142338328	151.613208411	1.40652475329
22.975153457	0.400697561571	57.8749961852	1.4502207214
17.7627296047	0.495271309549	61.7752616962	1.44259411506
1.44677918733	0.030177007355	160.155339213	1.43658255476
15.6564848645	0.58457063509	61.7477950377	1.44268383984
3.70620536327	0.103622577593	137.742545854	1.47314540283
15.213960717	0.688687124241	61.7203283792	1.45959696097
2.09992780881	0.0755126499222	26.1564989166	1.48148980742
19.0456241284	0.454356425672	64.9998474075	1.46596742039
11.9928955283	0.00295123142186	40.6918546098	1.48265622957
15.0629068013	0.00630491042817	72.1521652882	1.47314540283
17.2882926582	0.517862910855	57.1388897366	1.46623659473
18.4052406265	0.464265022736	62.6816614277	1.43855649994
5.61033570929	0.032006286813	71.8445387127	1.47659980688
7.10598222688	0.0135610522782	92.9554124577	1.42159851642
17.684011367	0.487740775781	57.1663563952	1.47260705415
18.6094825407	0.500911587878	65.2250740074	1.46296164024
1.78718237768	0.0633174535356	31.9849238563	1.47202384307
21.5199298182	0.420636707663	61.9455549791	1.4594623738
2.62329771398	0.00947566148869	107.320474868	1.48050283483
25.4345665072	0.417648884548	61.0940885647	1.4843610004
1.85951805563	0.27005652028	136.100039674	1.46385888805
5.24014723978	0.0377990050966	139.808038575	1.46385888805
20.8284858378	0.408106143376	64.1978209784	1.40733227631
26.2515341641	0.00167073580126	90.6756797998	1.46861430141
17.2478697793	0.503625019074	65.455793939	1.44779815233
5.72947682591	0.0176159550768	176.113467818	1.46699925536
18.5371468628	0.47100286874	60.1272621845	1.41141475383
14.5012415372	0.587040162358	63.8956877346	1.44169686725
1.34040319035	0.238349009674	88.7914670248	1.45771274058
1.08297327765	0.334660573138	176.135441145	1.47193411829
14.9799335236	0.585759666738	63.0167546617	1.42482860851
6.69111583865	0.0107561571093	119.197058016	1.40037860582
19.0286039689	0.480271217994	64.4779808954	1.45865485077
1.25317487282	0.0708174993133	35.1490829188	1.46246815395
12.709869748	0.688687124241	57.1993163854	1.46605714517
17.9754815987	0.465728446303	70.2844325083	1.44079961945
1.76165213841	0.144476485488	170.93325602	1.47395292585
6.34433008848	0.025573320719	131.073641163	1.46502531019
15.7649883814	0.531552018799	60.2041688284	1.43837705037
1.07446319789	0.249934446242	79.0243232521	1.48463017474
12.0226808075	0.691156651509	57.5124362926	1.48234219283
1.40422878854	0.159872920927	165.956297494	1.46978072356
20.6625392825	0.384874294259	66.4555803095	1.47417723781
17.964843999	0.548411877804	67.845393231	1.44829163862
14.3480601016	0.00148780785546	10.7147434919	1.43667227954
16.7223723542	0.521216589862	60.4623554186	1.43801815125
4.99122740684	0.0209391460921	175.575121311	1.43949861013
2.10631036863	0.106732352672	147.751396222	1.43635824281
13.1460113356	0.634205084384	58.7264625996	1.48346375259
25.0026799595	0.00103048799097	85.1933347575	1.44268383984
17.2819100984	0.481368785669	61.4511551256	1.48054769722
6.50176656401	0.0139878841517	115.428632466	1.4815795322
17.3393531367	0.498289620655	61.0116885891	1.48229733044
19.1094497266	0.481917569506	64.4779808954	1.47619604537
1.46379934685	0.151732627338	168.61507004	1.48050283483
3.16156025872	0.050146641438	144.23566393	1.46125686941
16.1926198893	0.509600665304	70.048219245	1.47310054044
1.60421566287	0.098409131138	155.810113834	1.4838675141
14.8756850466	0.60539393292	60.2096621601	1.47686898122
14.0693549895	0.645942960906	66.7192602313	1.4746707241
2.22332396532	0.172891293069	134.589373455	1.43698631628
4.10617911193	0.0331953184606	27.1398052919	1.46897320054
10.3908730137	0.739114261299	70.5755790887	1.45282274004
22.4688037113	0.001914639729	89.8406933805	1.48305999108
24.3346386984	0.471856532487	61.1435285501	1.46632631951
14.4161407396	0.627192846461	65.2250740074	1.47058824658
1.32551055077	0.10161037019	28.1231116672	1.46987044834
2.78498922939	0.0177379070406	163.522751549	1.47368375151
25.7451844184	0.342861842708	66.016113773	1.45286760243
16.7776878727	0.516155583361	62.4784081545	1.45645659365
1.24253727312	0.222098910489	80.5789361248	1.44941319838
4.86144869052	0.0784699850459	132.540360729	1.45600796975
14.084247629	0.610332987457	63.5825678274	1.43981264686
1.79781997738	0.205056123539	145.526596881	1.46646090668
20.3306461719	0.431734336375	60.0173955504	1.42002833276
17.5733803301	0.476978514969	65.4063539537	1.47287622849
1.97014909249	0.038317300943	10.6817835017	1.471440632
20.7667877596	0.410941526536	66.1369670705	1.4465420054
1.01702015952	0.448106387524	151.975768303	1.48184870654
5.34439571683	0.0402990203558	2.73842585528	1.47843916488
15.5713840669	0.551887508774	61.7532883694	1.47323512761
13.4800319662	0.63502826014	64.7526474807	1.47265191654
4.66997189595	0.0360002136296	3.54045228431	1.41953484646
18.2244014317	0.438899014252	61.3467818232	1.48166925698
1.23402719336	0.223135502182	81.227149266	1.47960558703
19.8668468251	0.471490676595	66.9060335093	1.44797760189
1.246792313	0.207281746879	13.829462569	1.44699062931
19.8030212269	0.410667134617	58.6385692923	1.46551879648
3.30835913455	0.0202988982818	150.476088748	1.41258117597
2.3190623626	0.0847200231941	14.8347422712	1.48175898176
15.5607464672	0.590515793329	67.6860866115	1.44555503282
4.70826725486	0.0153903317362	156.057313761	1.47960558703
18.9626508507	0.466185766167	62.637714774	1.45919319946
9.4228514412	0.0071890621662	70.3118991668	1.48274595435
12.8566686238	0.658747917112	64.6208075198	1.47345943956
17.0266077056	0.544753318888	62.4454481643	1.4552901715
1.04893295861	0.0516100650044	50.3216650899	1.4737286139
21.1114459898	0.416124485	62.5388348033	1.47754191708
5.51034227212	0.0625857417524	138.418225654	1.37579401595
15.1969405575	0.596735343486	63.4727011933	1.47529879756
1.25317487282	0.184476729637	165.154271065	1.48041311005
